ply
format ascii 1.0
element vertex 1214
property float x
property float y
property float z
property uint8 red
property uint8 green
property uint8 blue
end_header
0.833760 9.427938 -5.313888 86 74 68
-1.388605 6.821711 -2.222318 131 111 70
-5.781190 1.535312 -1.401638 138 107 54
-5.779992 1.534868 -1.401275 138 107 54
-5.780962 1.467281 -1.371417 163 132 78
-5.783244 1.467915 -1.372166 163 132 78
-3.517811 4.076049 -1.181980 191 167 118
-5.535961 1.943778 -1.183566 209 180 107
-5.630774 1.865525 -1.186405 212 180 102
-2.089563 6.041605 -1.105685 177 88 101
-3.940219 3.652331 -0.973298 169 38 36
-2.926317 6.372831 -1.086639 160 153 161
-1.785469 6.601558 -0.531655 196 232 69
-0.667860 8.933571 -0.295142 48 45 51
-0.667860 8.933571 -0.295142 48 45 51
-5.829000 10.292754 -1.743284 120 132 152
-2.648867 0.381512 1.096646 166 203 240
1.910366 5.358202 -5.046119 204 174 137
1.884100 5.402419 -5.087173 141 109 70
-0.627601 -2.055010 0.789757 151 139 131
0.066529 7.620536 -5.284928 110 81 30
2.628797 10.133681 -5.300851 119 92 56
0.720459 8.725717 -5.268447 119 90 47
0.720805 8.745814 -5.242871 172 145 106
0.730594 8.874351 -5.278337 94 67 25
2.499538 10.370406 -5.026474 113 83 41
0.594256 8.754309 -5.063992 176 162 145
-5.617671 1.394001 -1.998507 159 153 140
-5.617399 1.393949 -1.998300 159 153 140
-5.792319 1.525092 -1.888806 85 66 33
-5.787898 1.415702 -1.377942 156 127 85
-3.467151 4.226357 -1.305521 197 161 90
-3.658179 3.837394 -1.235384 75 64 56
-3.647766 3.866299 -1.209884 88 76 65
-4.369494 3.115585 -1.215293 120 99 50
-3.591242 3.964232 -1.202579 228 206 156
-5.614748 1.929313 -1.226141 161 129 52
-5.615276 1.928960 -1.227741 161 129 52
-5.307232 1.693403 -0.988702 198 169 101
-5.587485 1.970056 -1.150626 113 74 4
-5.612828 1.931579 -1.146425 173 139 72
-5.642786 1.896574 -1.143171 108 72 3
-3.092068 5.645151 -1.020979 58 69 91
-3.108002 5.701287 -1.043105 58 69 91
-1.316508 7.256968 -0.398213 89 121 164
-0.638776 8.882197 -0.553755 117 116 128
0.727225 7.954824 -5.468451 204 178 125
-4.898695 2.618703 -4.735901 133 114 78
-5.720891 1.450997 -1.920848 235 211 153
-4.553405 2.989577 -1.462051 82 73 60
-3.472137 4.250018 -1.278979 189 153 87
-5.625776 1.828096 -1.159608 242 216 143
-5.621602 1.837643 -1.142879 202 175 102
-3.284617 4.332908 -1.022368 83 78 73
-5.770801 1.625441 -1.032179 215 199 154
-3.175557 4.519508 -1.004054 78 90 111
-4.333925 3.114551 -1.398559 233 212 155
-4.403192 3.076073 -1.079491 255 244 204
-3.340600 4.028420 -1.027600 75 68 54
-4.334975 3.142668 -1.283474 248 234 197
-2.408656 -1.521682 -0.405419 87 79 73
1.363994 9.357964 -1.698041 242 219 166
3.965618 10.439089 -5.332271 87 89 105
2.713834 5.788940 -5.251383 183 163 142
-3.172462 6.586853 -0.982155 156 147 140
1.853110 10.178371 -4.918609 146 120 87
-3.138508 6.600458 -0.971137 81 72 73
-0.861961 -1.272740 0.757638 9 5 2
-0.113775 8.012932 -2.508714 201 178 129
-4.721316 2.723667 -1.160296 45 38 26
-1.165087 6.440429 -2.177903 254 242 208
1.973894 8.129985 -5.413904 217 189 133
0.922068 8.279504 -5.488318 209 184 138
0.161534 8.164515 -5.422871 74 60 38
-0.697542 -1.801986 0.784327 124 106 81
-0.697542 -1.801986 0.784327 124 106 81
-5.098184 3.373093 -4.734848 117 92 51
3.910576 13.795700 -1.481938 15 15 15
3.910576 13.795700 -1.481938 15 15 15
0.981516 8.913781 -5.191192 207 176 121
-1.104519 -1.777328 0.431541 155 125 85
-3.971577 3.702456 -4.937057 43 26 4
0.244474 8.227631 -5.272820 197 165 110
-4.179077 3.431131 -1.007191 44 33 20
3.719326 13.958545 -1.458721 117 112 121
1.255112 9.928684 -0.987767 187 209 239
-1.898052 6.502855 -0.416132 39 36 29
1.214394 5.850630 -5.171671 82 58 23
0.015368 7.974787 -5.294969 163 138 97
-4.950444 3.483917 -3.270104 194 170 113
3.893296 12.021194 -2.579665 229 202 162
-4.234608 3.182792 -1.456785 50 35 15
3.513308 13.965045 -1.731768 158 156 176
-3.734299 6.586951 -1.687498 188 203 223
-1.150052 -1.867257 0.441119 202 180 142
-1.080216 -1.784334 0.427392 251 241 213
-0.768995 -1.814876 0.787661 127 109 87
-0.914034 -1.692712 0.789070 87 68 52
-2.680063 -1.372269 -0.322574 62 61 70
-0.905107 -1.574918 0.788231 86 71 48
0.322790 7.958145 -5.348310 191 166 122
1.747410 10.677112 -2.979967 174 147 105
-3.733184 3.822715 -1.258222 240 223 162
3.114086 16.275217 -1.933217 106 106 120
-0.836608 -1.866315 0.095198 118 102 69
-2.356017 -1.839428 -0.708009 46 40 34
-0.403733 -1.769192 0.792457 95 80 61
-0.422586 -1.767851 0.794864 118 105 91
-0.667113 -1.852141 0.789545 100 85 69
-0.678541 -1.779796 0.788108 113 99 78
-0.701363 -1.752124 0.786988 126 110 89
-2.420704 -1.461788 -0.393755 12 4 0
-2.690926 -1.400568 -0.335090 52 47 46
-2.770929 -1.380034 -0.359583 43 43 40
2.385153 5.576483 -5.156809 203 178 148
-0.614419 -2.061221 0.796395 65 52 31
-1.166602 -1.879392 0.432325 255 253 223
-0.296009 -1.644129 0.794524 84 70 52
-0.695301 -1.717809 0.782531 252 234 208
-0.585941 -1.287407 0.532402 74 60 41
-0.810556 -1.746289 0.773953 119 97 72
-0.899496 -1.697322 0.786779 139 122 101
-2.636908 -1.354460 -0.333469 62 60 63
-4.752158 4.026098 -5.087203 140 118 68
2.778231 9.875933 -5.418146 131 100 52
4.551125 11.696191 -5.590102 95 72 45
4.551125 11.696191 -5.590102 95 72 45
1.133939 9.386477 -5.377778 180 152 108
1.158290 9.396607 -5.286834 223 198 161
-3.744372 3.760244 -1.372364 47 29 4
-4.292254 3.278331 -1.113506 255 243 203
3.067621 13.700944 -1.430279 87 95 118
-0.921788 9.355883 -1.145869 94 102 121
-2.314456 -1.689452 -0.618057 55 53 49
-2.358550 -1.690871 -0.591121 23 14 8
-2.406736 -1.683744 -0.580797 26 16 8
-0.608448 -1.992354 0.792877 117 98 76
-0.977512 -1.669462 0.559495 230 217 191
-0.707857 -1.723670 0.785438 83 63 36
0.370784 6.210587 -5.011998 210 189 161
-2.472399 -1.437738 -0.368449 5 0 0
-0.640955 -1.350530 0.570822 100 90 74
-2.604677 -1.410235 -0.326348 5 1 0
-2.644550 -1.416122 -0.333733 13 5 1
-0.924014 -1.664308 0.781211 123 107 89
0.191332 7.625648 -5.279797 124 100 49
0.138071 7.884803 -5.341810 62 43 17
0.355940 8.075484 -5.338032 58 37 9
0.583337 7.821301 -2.309043 148 133 119
1.770617 10.277759 -2.588416 154 125 89
-3.883395 3.582514 -1.449936 70 61 49
-3.427797 4.229319 -1.326223 190 156 77
-4.283316 3.211292 -1.231830 240 222 176
-0.551776 8.660286 -1.275899 93 104 130
-0.551776 8.660286 -1.275899 93 104 130
-0.748063 -1.986413 0.715895 117 85 44
-0.601881 -1.958721 0.791286 89 69 45
-1.000620 -1.696716 0.541535 172 152 115
-0.916068 -1.706819 0.788430 166 154 143
-1.264553 -1.302900 0.304712 133 115 92
-2.624151 -1.382087 -0.321227 1 2 5
-2.725483 -1.336989 -0.339309 56 52 58
4.527612 10.638997 -5.364236 149 130 100
2.904585 9.947056 -5.442651 150 118 75
-1.246340 -1.366252 0.742808 128 102 75
-3.449414 3.695566 -1.349551 73 64 50
-3.526787 3.762422 -1.302049 179 163 140
-3.526787 3.762422 -1.302049 179 163 140
-3.657125 3.969483 -1.083767 54 44 23
1.569238 10.268543 -1.444386 177 192 229
-4.333697 3.217774 -1.025655 211 191 142
-2.088456 5.994329 -1.081706 188 92 106
-0.728070 9.043850 -1.191774 115 113 124
-2.506723 -1.793992 -0.796480 23 14 5
-2.433557 -1.750488 -0.646284 100 91 82
1.453058 5.259672 -4.973699 187 165 127
1.028000 5.554894 -4.950305 155 131 100
-2.473499 -1.606873 -0.547893 39 18 3
-0.302721 -1.610704 0.793478 100 87 74
-2.432011 -1.433977 -0.376173 34 24 13
-0.736303 -1.073595 0.370765 98 89 77
-0.468089 7.098140 -5.030242 126 110 73
2.228316 10.036736 -5.106030 91 71 45
-1.323925 -1.227056 0.776324 222 205 181
-3.339176 4.301726 -1.064650 90 81 71
-3.279452 6.441040 -0.322778 116 109 111
-0.048408 7.973758 -2.399640 246 231 192
4.773504 11.238114 -5.080460 96 73 38
2.943172 2.265336 -1.287717 41 47 46
5.609061 10.270651 -4.519554 228 175 115
3.386426 11.491965 -5.285645 40 24 7
0.591759 8.225690 -2.441049 80 56 31
5.554248 10.171083 -4.625692 195 132 64
2.057132 5.366078 -5.142109 115 102 95
3.789633 10.657497 -5.319965 27 30 53
-3.960292 3.579609 -1.236508 45 38 26
-3.964120 3.586999 -1.238916 45 38 26
-4.731447 2.740554 -1.172729 43 37 23
-4.369409 3.202511 -1.223298 238 215 164
-4.373357 3.205812 -1.225770 238 215 164
-2.651330 6.804576 -1.317389 194 212 239
-2.651330 6.804576 -1.317389 194 212 239
-2.328825 6.733512 -0.674571 19 24 29
-2.328825 6.733512 -0.674571 19 24 29
-0.991706 7.136555 -0.917970 160 184 217
0.143623 9.232968 -0.863798 80 79 87
1.986510 9.671015 -4.550029 239 221 176
-1.752026 6.652288 -0.640266 179 217 51
-1.744341 6.554534 -0.611097 179 217 51
-0.978121 -1.840889 0.325867 145 123 93
-3.714952 3.348616 -4.910717 179 146 94
-4.758109 3.536862 -4.636690 136 108 68
4.849123 10.549115 -5.626185 195 157 107
-4.967619 3.949619 -4.692162 226 205 153
-3.216541 4.202470 -1.410606 46 39 29
-1.112695 -1.905562 0.409763 51 40 30
-1.097011 -1.840446 0.415937 255 252 243
1.633999 9.567531 -5.295748 74 60 45
1.117095 10.369460 -1.751387 68 54 46
-4.114266 3.390571 -4.987510 203 174 118
3.159749 3.052123 -0.993399 109 99 97
1.586029 10.245525 -4.995125 76 56 29
-5.031230 3.524158 -2.585080 141 112 66
0.468166 8.244795 -2.336352 210 188 132
-4.975196 3.666118 -2.189101 124 99 58
0.047281 9.390001 -2.521196 155 126 85
-3.186843 6.474765 -1.445621 169 181 206
-2.425217 -1.481179 -0.403570 2 2 0
-4.857626 3.667364 -3.129181 177 148 95
-4.919683 3.560015 -3.046967 225 194 138
4.530911 11.459132 -3.493264 57 43 27
-0.451021 8.188047 -2.340474 85 64 32
-0.245237 7.764462 -1.932416 157 130 83
-4.486831 3.030327 -1.392049 240 224 176
-3.158139 6.492931 -1.174530 164 164 175
3.393322 13.440613 -1.011346 85 89 112
-2.701053 7.032539 -0.865487 100 104 112
-3.606539 6.496826 -0.631131 26 28 41
2.497510 3.447700 -3.304840 214 222 229
3.097689 2.529202 -1.922694 214 185 139
-2.492145 -1.443651 -0.366902 4 1 0
-4.936729 3.460625 -4.724935 207 176 113
-4.887909 3.568527 -4.652424 126 101 58
1.332802 9.005036 -5.226956 79 63 44
0.981516 8.913781 -5.191192 209 180 125
1.599071 10.010618 -5.405960 61 45 21
0.563021 9.707371 -3.494200 128 121 117
-0.576408 8.400145 -2.310921 124 99 54
3.563573 12.170575 -1.534693 169 193 231
-4.129978 3.471992 -0.921449 202 136 178
2.975960 14.072684 -1.501287 139 142 147
-3.249374 6.507516 -0.654516 99 98 105
-0.652548 -2.048681 0.747799 138 120 93
-3.842941 3.268469 -5.023322 191 163 106
-3.903977 3.200506 -5.005759 55 31 7
-4.033271 3.310289 -5.015821 196 170 114
-4.028039 3.297601 -5.008778 196 170 114
-4.363722 3.386372 -5.023440 184 154 107
-3.860855 3.624052 -4.933923 186 153 107
0.831493 9.203388 -5.329107 64 51 29
1.849301 10.006887 -5.351675 56 41 22
-4.489677 3.033797 -1.002390 249 230 189
-0.564029 9.064271 -0.552661 82 93 120
-2.383986 -1.674743 -0.574728 49 38 31
2.184958 8.047828 -5.367545 225 201 143
-4.893719 3.535345 -4.839939 126 101 60
0.319058 8.505161 -5.188556 120 100 63
1.113282 9.524939 -5.319361 83 65 38
-0.560631 7.569287 -2.257852 249 232 192
-0.365203 7.823565 -2.284674 249 232 196
-4.328971 3.171406 -1.281722 255 248 212
-3.622606 6.448016 -1.686384 87 98 121
2.950879 13.496305 -1.756616 151 169 204
-1.559962 6.868458 -0.760122 143 199 4
-1.791177 6.497015 -0.565508 138 202 0
-0.678134 8.990005 -0.666812 56 60 79
3.304853 13.580114 -0.584683 119 113 122
0.008660 9.556128 -0.361572 59 49 35
2.284978 2.944644 -3.201745 177 158 148
-2.419124 -1.740828 -0.642116 7 0 0
-2.472571 -1.709656 -0.643666 9 2 0
-1.592382 -2.135778 0.399025 92 100 94
-1.142258 -1.769861 0.430154 252 237 210
-4.533799 3.305944 -5.039773 176 151 114
-0.564909 -1.250230 0.625673 99 90 76
3.618799 11.018072 -5.676241 206 182 146
0.703315 8.876620 -5.435616 180 156 116
0.910791 9.053405 -5.362512 59 36 0
1.440634 10.339161 -5.340323 138 115 72
0.477038 8.319710 -2.429065 183 156 110
3.610300 11.430634 -2.657568 177 149 109
-0.677818 7.413059 -2.197242 144 123 85
-3.562083 3.944906 -1.287351 236 217 164
-3.562083 3.944906 -1.287351 236 217 164
-4.332644 3.204299 -1.241915 81 56 3
3.718580 13.909506 -2.064197 74 82 108
-1.396137 6.873181 -1.066241 50 45 41
-2.620494 7.068836 -1.237091 125 138 165
-2.033437 -1.981911 -0.486318 176 152 119
-2.357938 -1.825428 -0.679703 5 0 0
2.370830 3.224161 -3.355855 168 149 133
-0.688197 -2.038181 0.676779 255 236 204
-1.123109 -1.779081 0.421850 231 203 155
-0.964867 -1.685193 0.533893 114 93 56
-2.473138 -1.420548 -0.359545 88 82 76
-3.045326 3.519190 -4.756202 64 43 14
-3.657925 3.511160 -4.875319 170 150 115
-3.697070 3.468496 -4.809153 179 160 110
1.897751 8.729604 -5.331335 123 95 48
1.722104 8.877583 -5.398867 205 180 132
1.908428 8.818157 -5.232313 115 86 40
1.283754 8.608033 -5.338005 157 128 84
1.044637 8.614164 -5.282535 79 55 27
4.154190 10.732311 -5.336162 215 196 166
2.166462 10.076184 -5.454023 178 155 116
4.389780 11.559773 -5.516140 104 81 53
2.498318 10.665526 -5.421955 48 29 5
1.181397 9.778862 -5.192567 154 133 98
0.614809 8.280177 -2.340340 230 214 183
5.414861 12.538109 -2.349056 96 66 25
3.700710 13.495363 -2.010735 149 159 184
3.902960 13.071297 -1.702999 107 130 180
-2.797617 6.419279 -1.059553 120 115 114
-1.908733 6.491817 -0.776611 20 31 8
-1.870229 6.471599 -0.734013 149 203 34
-2.712098 6.573239 -0.873986 117 124 142
-0.923041 9.376122 -1.023932 118 130 156
-1.873744 6.508140 -0.472135 150 199 21
-0.820353 -1.900254 0.082901 97 75 38
2.009883 4.254513 -5.130980 160 136 107
-2.348651 -1.801229 -0.655900 13 0 0
-2.386661 -1.756703 -0.658946 98 88 80
-2.427726 -1.758403 -0.653207 43 33 23
-0.699563 -2.047845 0.671842 242 222 193
-3.975531 3.258249 -5.021381 148 128 88
-2.909595 4.156948 -5.038546 69 41 0
-3.000205 4.272403 -5.065587 204 178 128
-4.032470 3.712778 -5.021903 142 126 103
-5.117747 3.402260 -5.012955 146 115 67
-5.129576 3.401073 -4.970659 176 148 107
-4.566556 4.132406 -5.095392 205 178 127
-4.989954 3.421641 -4.668092 166 139 92
-3.113629 5.188818 -5.125338 196 174 126
1.932099 8.754148 -5.248220 226 200 155
1.839730 9.184880 -5.435500 148 119 73
1.839730 9.184880 -5.435500 148 119 73
0.774101 8.720367 -5.307271 168 146 113
3.842721 10.566986 -5.282854 147 138 144
0.681523 8.949569 -5.405618 111 87 42
0.681533 8.949798 -5.405737 111 87 42
0.676981 9.016448 -5.318280 74 53 17
-1.250095 -1.381150 0.709669 128 107 74
0.696607 9.157176 -5.187217 76 67 59
0.931832 9.385723 -5.202194 74 68 55
-1.287334 -1.269391 0.785687 139 132 124
4.100499 11.919584 -2.657908 163 138 105
-4.314413 3.128344 -1.334301 103 79 26
-4.311352 3.139981 -1.312460 251 232 191
-4.359211 3.125038 -1.319862 239 218 175
-3.574214 4.011955 -1.205078 218 199 151
-4.103152 3.467860 -1.004187 116 53 41
3.478107 12.260056 -1.521221 147 107 147
-2.350111 5.845638 -1.066151 233 105 113
-2.678073 5.511268 -1.050919 202 180 199
-2.275548 6.801386 -1.133885 120 122 134
-1.881077 6.483357 -0.569171 146 204 13
-2.357152 -1.795517 -0.649104 103 94 85
2.276257 2.791693 -3.218813 154 133 119
-2.483698 -1.734181 -0.634370 38 30 24
-0.699302 -2.040675 0.677274 147 128 100
-0.990270 -1.684345 0.553011 137 121 79
-0.981048 -1.680707 0.557515 136 118 78
-4.489393 3.330470 -4.978098 80 65 43
-4.501328 3.339992 -4.990412 80 65 43
-0.642650 -1.405885 0.581041 102 89 76
-5.588589 3.048863 -5.005549 118 96 67
-5.081322 3.479665 -4.994074 139 116 75
-3.095418 5.425168 -5.130308 148 122 76
-3.118602 5.341406 -5.056844 191 164 121
1.874187 8.825177 -5.366703 216 191 144
2.532750 9.890172 -5.220929 116 88 44
0.569545 8.969694 -5.391576 86 63 24
0.622847 9.009416 -5.303885 144 124 96
3.414529 11.095305 -5.496047 165 136 94
0.622565 9.005782 -5.253777 112 93 67
0.873949 9.346354 -5.275705 145 136 124
0.978684 9.525346 -5.065223 108 103 100
1.688718 10.038424 -5.039380 127 102 58
0.532071 8.231462 -2.529652 142 125 105
-1.578212 6.689028 -2.314968 144 125 87
-3.411751 3.743541 -1.328837 43 37 23
-3.708288 3.834762 -1.313130 189 169 128
-3.400619 4.259873 -1.318140 232 207 139
-3.339176 4.301726 -1.064650 89 79 72
-2.309847 5.868491 -1.067572 255 151 154
-3.245106 6.593853 -1.069863 80 78 72
-0.674573 8.933711 -0.592192 118 118 133
-2.201027 -1.970236 -0.581220 86 72 62
2.332075 5.071723 -5.329086 213 190 158
-2.732951 -1.350830 -0.322021 57 51 55
2.865813 9.309494 -5.418659 145 117 71
1.194009 8.372616 -5.382898 213 187 133
1.935392 8.589847 -5.220801 197 170 126
0.722635 8.762554 -5.291384 134 111 70
2.360873 9.694021 -5.140618 152 124 80
1.204675 9.181849 -5.254063 198 172 123
0.522220 8.927279 -5.342864 133 115 83
-1.249073 -1.371078 0.753108 254 246 219
-3.447848 4.189609 -1.360763 227 200 136
-3.743792 3.848411 -1.318403 125 103 49
-3.450589 4.223394 -1.277379 117 82 11
-2.649471 5.466075 -1.007488 206 125 157
-3.166665 6.638227 -0.932989 75 64 59
-5.401740 4.503363 -0.532893 140 143 155
3.816645 11.739092 -4.959260 4 2 0
4.461250 12.154144 -5.019963 47 33 14
4.062002 12.295719 -3.914269 8 6 1
8.299981 2.807003 -4.440618 16 9 7
2.656147 2.648364 -1.661647 30 28 25
1.994548 10.476704 -2.807045 175 152 119
4.565917 13.116489 -3.652974 133 113 94
4.518541 12.101556 -3.714738 114 95 76
3.588382 11.132609 -5.510927 141 110 68
1.905855 10.212803 -5.029816 130 107 79
3.943698 11.057423 -3.679132 86 73 52
-3.008451 4.492682 -1.241841 46 39 28
-3.008451 4.492682 -1.241841 46 39 28
1.514072 9.906045 -1.148519 139 172 205
0.565940 8.505281 -3.216881 121 117 114
5.561863 14.671675 -2.185468 50 42 37
5.561863 14.671675 -2.185468 50 42 37
5.970442 3.694463 -4.983179 209 181 141
-3.342939 5.035187 -5.185089 196 169 117
6.833294 15.050899 -2.133854 52 42 30
-1.397970 7.148908 -0.931537 52 47 43
-3.062551 6.468098 -0.955765 77 80 96
-2.788400 6.877642 -0.706481 124 127 140
-2.579434 3.457176 -5.025783 57 43 23
-3.733112 3.572641 -4.016575 56 33 4
3.457908 11.049319 -5.856815 203 181 131
-3.420619 4.193032 -1.301940 172 142 80
-1.625211 6.690992 -0.909484 46 40 32
-2.825191 3.766289 -5.007181 203 176 123
-3.662657 3.608191 -2.740015 232 210 169
-1.556291 6.866740 -3.056573 197 177 127
-3.445482 3.558339 -1.447712 163 136 100
-2.592989 3.642196 -4.860021 194 168 119
-3.503838 3.957195 -5.000677 187 160 114
-3.380607 4.300306 -5.041752 80 64 49
-2.510694 4.815398 -5.081848 199 172 120
-2.103840 5.157876 -5.044979 198 172 118
-2.063964 5.762196 -5.183790 38 31 18
-1.994428 6.917406 -4.805992 208 185 136
3.705369 10.518868 -5.407513 39 39 53
3.875292 11.159445 -5.404214 173 151 109
-3.407444 4.140751 -1.488648 43 38 34
-3.708794 3.944131 -1.055079 38 30 22
-3.708794 3.944131 -1.055079 38 30 22
-0.003378 9.024899 -2.403960 150 127 90
-3.403405 4.214198 -1.056579 39 31 23
-3.403405 4.214198 -1.056579 39 31 23
-2.100603 6.407043 -1.112255 141 153 173
-2.206386 6.725425 -1.060743 28 29 32
-1.126814 7.204710 -0.817770 153 183 219
7.015870 2.496176 -4.758308 170 134 100
-1.758615 -1.879379 -0.229948 61 51 38
-3.600070 3.617984 -4.756240 196 164 116
-3.897117 3.804526 -4.790688 194 165 119
-2.784661 4.690700 -5.130239 202 172 119
-3.314331 5.343654 -5.156283 198 171 121
-2.697840 5.777398 -5.116356 19 12 4
-3.380488 4.228439 -1.374127 240 222 171
-3.380488 4.228439 -1.374127 240 222 171
-3.665538 3.924295 -1.279838 45 39 34
6.022396 11.906262 -2.132860 182 165 155
7.456340 17.138430 -3.006544 148 126 94
-3.403143 6.519149 -0.945373 113 116 127
-2.361326 -1.740138 -0.664306 3 3 3
-2.469102 -1.491031 -0.372647 118 105 93
-2.480278 3.499118 -5.004884 175 148 102
-2.380269 4.009398 -5.150667 196 169 117
-2.773992 4.073701 -5.062214 38 23 9
-2.772872 4.065292 -5.053102 38 23 9
-2.090412 4.340003 -5.042902 198 168 119
-2.464972 4.401679 -5.050767 182 156 108
-2.749882 5.085725 -5.049637 195 168 119
-0.815385 -1.062461 0.785794 69 64 61
4.132030 10.551364 -5.443201 44 41 52
-1.647004 6.958623 -2.313399 149 126 87
-3.494996 4.105767 -1.370663 240 219 174
0.167080 8.121420 -2.333845 255 245 220
-3.368724 4.240071 -1.195757 241 226 180
-3.368724 4.240071 -1.195757 241 226 180
-4.182419 3.431127 -1.005006 41 30 23
-0.399039 8.489648 -2.283107 143 118 77
-4.042164 3.573094 -0.929980 197 125 177
1.109496 9.851046 -2.439024 101 85 69
6.576896 10.529898 -1.642579 26 18 12
3.897535 11.962846 -2.566784 227 208 164
7.978505 17.664743 -3.712348 77 57 27
1.245645 9.164012 -1.788650 84 65 44
-2.687603 6.787670 -1.615407 122 147 190
4.740963 13.115719 -2.305406 126 111 81
6.032907 14.241976 -2.051116 38 28 14
6.032907 14.241976 -2.051116 38 28 14
4.568803 13.141564 -1.891539 78 69 57
-2.757107 6.692661 -1.113379 114 121 133
-2.681971 6.982540 -1.104662 151 193 242
0.424609 9.324766 -1.221952 98 104 117
1.129323 9.937488 -1.208523 134 134 143
4.630661 13.333133 -1.415123 34 37 51
-1.833947 6.524930 -0.503232 170 215 45
-1.547568 6.904996 -0.541266 136 203 0
2.310937 1.789488 1.919390 153 114 75
-2.437021 -1.759967 -0.642732 61 52 48
-2.442183 -1.702681 -0.625412 42 37 31
-2.442183 -1.702681 -0.625412 42 37 31
-2.440329 -1.459485 -0.372825 113 103 92
-2.535616 -1.453745 -0.352727 105 95 84
-2.747007 3.297796 -5.027291 69 49 25
5.209366 5.278443 -5.291062 216 190 149
-2.472908 3.611599 -4.958917 68 50 24
-2.629069 4.364890 -5.149405 192 165 120
-3.479492 4.205840 -5.104754 184 156 113
10.173614 7.307506 -5.327770 173 112 61
-2.619077 4.369472 -5.030079 48 29 6
-2.532938 4.581704 -5.170088 171 145 99
-2.333295 4.666386 -5.088545 65 45 23
-2.917575 4.641433 -5.119743 201 174 124
-2.404876 4.762103 -4.888855 186 159 112
-2.194252 5.317498 -5.170825 196 170 121
-2.296100 4.975174 -4.888214 52 36 22
-3.799174 3.284042 -3.749655 135 110 71
-2.606144 5.285591 -5.050145 40 29 12
-2.614055 5.373888 -5.119163 40 29 12
-2.783042 5.307176 -5.100626 55 52 28
-2.785332 5.311487 -5.104995 55 52 28
-2.598336 5.568078 -5.155589 143 125 89
-1.942090 5.951327 -4.987935 233 214 174
-2.163527 6.256277 -4.998084 160 138 95
3.120974 10.730746 -5.469752 198 179 132
-3.400363 3.727511 -1.394483 50 36 27
-1.565871 6.673875 -2.380844 139 118 87
-1.655983 6.840992 -2.407370 165 142 99
-3.707566 3.816830 -1.349227 177 152 110
-1.502101 6.708827 -2.236476 123 104 67
3.911337 11.747158 -3.403938 135 117 94
-3.737683 3.835794 -1.260973 233 214 165
-3.428420 4.221822 -1.268761 152 124 69
-4.209865 3.351719 -1.026378 243 228 190
-4.211066 3.351235 -1.029507 243 228 190
-3.989618 3.602581 -0.991626 53 25 19
0.510649 9.139615 -2.433654 98 88 78
6.532769 11.227183 -1.340442 22 15 11
7.982919 17.264874 -2.978483 128 113 81
1.043465 9.573594 -1.332801 197 76 97
-2.611582 7.126616 -1.112493 19 25 39
-3.202322 6.685120 -1.083996 40 37 41
6.146823 14.554027 -1.706420 76 69 61
-2.685809 6.861285 -0.964156 15 36 69
6.744109 15.405958 -1.692239 62 71 87
6.417084 11.318194 -0.462529 25 20 19
3.654881 13.293175 -1.546935 160 153 175
-2.630707 7.194778 -0.905293 23 24 32
6.580562 16.243696 -1.772071 120 139 171
4.375728 13.319010 -1.314413 24 31 46
-2.326693 -1.782299 -0.646504 75 70 64
8.276246 3.157999 -5.263819 121 95 71
8.125834 3.243935 -5.259842 140 112 85
-2.401833 -1.705860 -0.601774 8 5 2
-2.451549 3.383744 -5.023587 61 39 22
-2.559846 3.655706 -4.972517 191 164 120
-2.866120 3.604582 -4.944418 197 174 131
-3.753221 3.654816 -4.926112 38 25 10
-3.008561 4.167498 -5.094912 186 160 112
-3.870243 3.685278 -4.746857 190 164 123
-2.253376 4.603431 -5.115852 191 167 120
-2.659937 5.024839 -5.237502 189 162 120
-2.445672 5.206785 -5.136739 60 44 30
-2.445672 5.206785 -5.136739 60 44 30
-2.729910 5.310426 -5.187905 193 171 134
-2.367076 5.488329 -5.149960 18 12 2
-2.335323 5.325706 -4.719389 94 76 54
-2.707647 5.887919 -4.987867 35 18 3
-2.104792 6.725605 -5.162527 111 90 47
4.014414 10.807117 -5.353873 50 40 50
1.606273 10.086549 -5.334181 67 53 23
-3.421618 3.696778 -1.434970 149 126 95
-1.622335 6.968674 -2.205621 95 74 41
0.570839 8.263359 -2.337014 229 213 177
1.820355 10.534220 -2.929574 163 141 96
3.637596 11.454558 -2.940531 157 139 101
-3.564316 4.070021 -1.149332 51 40 23
-3.666608 3.978735 -1.122164 45 34 18
-3.421007 4.176898 -1.110689 63 52 35
-3.624953 3.992271 -1.078851 227 214 194
8.030897 16.920343 -3.303041 211 190 152
8.245911 17.215717 -3.237009 153 132 99
-1.174829 7.219393 -1.318110 78 87 101
6.210969 11.069721 -1.270122 22 15 12
5.874938 14.249057 -2.298085 136 120 91
0.833264 9.347824 -1.330426 81 64 63
-0.555963 9.029769 -1.230654 97 113 138
-0.319414 9.093081 -1.180698 125 129 133
5.836205 14.905917 -1.760280 98 103 121
4.683968 13.069258 -1.384065 140 150 180
-3.372282 6.433178 -0.784644 59 59 73
-1.960876 6.543986 -0.493608 107 161 25
-1.960876 6.543986 -0.493608 107 161 25
3.280324 13.256717 -1.450589 76 80 93
-2.357045 -1.698264 -0.601949 50 45 39
-2.444107 -1.651090 -0.572956 17 10 6
-2.503452 -1.437547 -0.336280 112 102 98
-2.541906 -1.393221 -0.335191 80 72 65
-2.859016 3.490106 -4.961473 169 149 117
5.329051 5.209315 -5.184971 212 188 148
8.749021 5.957848 -5.284830 193 144 101
-3.335462 3.626329 -4.807981 242 227 203
-3.501683 3.597547 -4.771845 58 39 12
-3.780926 3.669093 -4.845273 166 145 113
-3.947745 3.612737 -4.758124 187 165 126
-2.696270 4.302679 -5.014448 180 156 111
-3.353083 4.285853 -5.072078 45 25 0
-3.277457 4.311965 -5.055043 67 47 21
-2.668136 4.459842 -5.036430 189 164 120
-1.929369 4.651504 -5.024812 203 180 139
-2.516455 4.539667 -5.024591 58 35 0
-2.272162 5.133606 -5.119212 181 157 115
-2.377873 5.020788 -5.040064 166 146 108
-3.744361 3.560451 -4.108899 131 111 82
-2.488884 5.428502 -5.130912 40 26 1
-2.275325 5.501516 -5.105685 17 6 0
-3.748722 3.573168 -3.833189 233 207 165
-3.173690 5.293498 -4.991478 195 169 123
-3.173690 5.293498 -4.991478 195 169 123
-2.219169 5.562504 -4.927645 224 207 177
-2.924124 5.842426 -5.106161 83 56 25
-2.372453 6.169861 -4.901413 61 42 16
2.059624 10.055024 -5.452448 61 47 18
1.237331 9.964296 -5.311912 163 144 105
1.539228 10.094624 -5.265475 133 115 75
4.613833 11.766368 -5.355846 75 65 47
-3.350275 3.731865 -1.416963 149 124 91
4.454273 12.204474 -3.802958 83 66 45
-3.582041 3.798859 -1.320415 204 190 152
-3.585918 3.811548 -1.325533 204 190 152
-3.683569 3.866374 -1.213644 28 16 1
0.065778 8.018892 -2.319014 224 211 172
-3.593209 4.020229 -1.160378 237 222 185
-3.470125 4.091086 -1.111984 56 43 13
-3.478030 4.172876 -1.092048 229 220 204
3.949389 12.029751 -2.734662 157 137 98
8.168799 16.753824 -3.125781 213 193 155
8.049376 17.255053 -3.308836 134 115 78
6.082675 10.989770 -1.377532 52 47 46
8.313824 16.885599 -3.032744 178 155 119
-0.955953 9.236854 -1.968655 86 94 105
-2.178766 6.737976 -1.148930 120 124 144
5.822230 14.160089 -1.999107 176 162 136
5.822230 14.160089 -1.999107 176 162 136
5.815392 13.943748 -1.871784 60 40 10
3.056258 13.781837 -2.323599 89 100 122
-3.768191 5.938532 -1.028365 129 128 135
-3.180590 6.654568 -1.128796 117 117 123
4.742829 13.349021 -1.636977 76 77 80
2.898674 13.254823 -1.877951 143 169 204
4.684363 13.146647 -1.483864 51 54 67
3.505659 12.737572 -1.523908 196 119 153
4.857216 13.682236 -1.424551 83 94 118
4.311453 13.556164 -1.384303 118 127 152
3.246085 13.386852 -1.406389 109 117 137
3.246085 13.386852 -1.406389 109 117 137
-2.907934 -1.395976 -1.249435 56 47 37
-2.329260 -1.689540 -0.612955 5 2 0
-2.368666 -1.618360 -0.523439 48 42 41
-2.427150 -1.552034 -0.420022 44 32 22
-2.832380 3.426005 -4.965266 54 34 6
2.468906 2.660768 -3.150892 162 147 122
-2.437232 3.738922 -4.999903 185 162 131
-2.437232 3.738922 -4.999903 185 162 131
-3.566197 3.460386 -4.867032 149 132 107
-3.079842 3.493247 -4.722032 247 229 201
9.447244 6.218336 -4.940735 214 152 82
-3.356557 3.926992 -5.048377 72 49 15
-0.999955 -1.703379 0.529029 98 83 51
-2.786851 4.140251 -5.036766 187 164 117
-2.863314 4.137113 -5.035522 237 215 178
-2.910404 4.157950 -5.039625 64 38 0
-2.370909 4.510565 -5.096530 66 47 9
-2.323562 4.595909 -5.091843 54 39 5
-2.323562 4.595909 -5.091843 54 39 5
-2.533419 4.615982 -5.034422 203 177 136
-2.310587 4.762539 -5.086082 183 160 122
-2.310587 4.762539 -5.086082 183 160 122
-2.721274 4.792234 -5.066125 146 128 98
-2.870911 5.293160 -5.136055 103 96 46
-2.222486 5.634822 -5.228958 129 117 102
-2.009397 5.739853 -4.847767 98 80 50
-2.744926 5.766907 -4.882574 101 83 56
2.696126 9.958543 -5.410445 144 123 79
2.197219 9.739101 -5.359440 205 182 134
3.396460 10.815468 -5.568808 219 203 169
1.881433 10.203303 -5.339602 188 177 154
1.881433 10.203303 -5.339602 188 177 154
2.747045 10.760016 -5.410916 137 120 87
3.403321 11.485456 -5.489980 190 168 127
1.368187 10.462339 -5.141622 130 112 68
9.364434 9.783268 -2.179279 111 105 112
-1.555611 6.677503 -2.339391 87 67 32
0.551021 8.197186 -2.478751 191 175 144
-4.102414 3.466309 -1.002052 99 53 49
4.637636 11.595463 -2.778831 146 113 67
1.759541 8.166121 -1.634834 235 221 193
6.046327 11.615345 -2.231518 179 162 151
5.802230 13.775114 -2.757692 248 214 164
3.399393 11.483271 -2.319241 136 119 89
-2.174010 6.043400 -1.077838 112 57 68
8.107384 17.094454 -3.032935 106 86 48
6.307279 14.529922 -1.891067 146 139 132
4.151332 13.054225 -1.699939 94 111 141
3.978263 12.559444 -1.511145 67 85 111
4.662275 13.434018 -1.549172 110 111 116
4.506937 13.290968 -1.357504 112 117 132
-3.371414 6.327637 -0.706894 178 178 186
3.177112 13.370628 -1.470082 89 100 124
-2.466900 -1.753530 -0.639432 70 65 59
-2.473731 -1.736512 -0.642382 26 20 14
-2.540087 -1.412606 -0.331732 5 0 0
-2.673922 3.398023 -4.986028 83 65 40
-2.701707 4.033441 -5.115435 122 94 51
-2.720879 4.073653 -5.104998 139 113 81
-2.040153 4.196429 -5.048097 191 172 135
-2.874167 4.237064 -5.059589 182 153 105
-3.404682 4.281847 -5.078595 130 117 96
-3.401373 4.267966 -5.066129 130 117 96
-2.535177 4.641423 -5.160714 160 137 102
-2.289987 4.703800 -5.110459 62 40 4
-2.581718 4.531856 -5.014154 180 155 119
-2.245000 4.739738 -5.121034 185 163 125
-2.382800 4.710164 -5.074357 162 139 100
-2.850501 5.315978 -5.093760 148 158 109
-2.694982 5.622431 -5.238319 161 141 103
-1.970882 6.399551 -5.661888 155 137 107
-3.003804 5.556238 -5.125672 173 140 98
-3.052876 5.575438 -5.081505 190 165 127
-1.938336 5.822656 -4.978574 143 119 69
-2.046936 6.522083 -5.202447 92 72 29
-2.046936 6.522083 -5.202447 92 72 29
1.830032 8.868489 -5.387799 148 125 82
2.123042 9.462996 -5.300418 173 148 104
4.250641 11.020435 -5.433308 65 51 23
2.350976 10.160940 -5.248726 65 52 25
2.307414 10.022494 -5.170955 65 52 25
2.551251 10.224848 -5.245574 208 191 165
4.756742 10.875402 -5.241744 93 64 32
4.167343 10.761638 -5.237986 158 141 112
4.223705 11.198730 -5.449451 91 76 49
3.810287 11.805871 -5.719441 143 126 94
9.257361 9.353816 -2.098289 97 90 91
-1.602683 6.616840 -2.412157 156 134 93
-3.441802 3.733987 -1.328809 101 99 91
4.662631 13.162189 -3.832894 120 106 84
-3.478189 4.196422 -1.368137 124 97 35
-3.575686 3.890937 -1.241370 74 54 37
-3.473102 4.130296 -1.250475 164 134 73
-2.090202 6.053392 -1.080516 74 56 64
6.134989 14.148663 -1.864097 57 47 32
6.048535 14.235663 -1.846095 88 69 37
-3.207114 6.606547 -0.920879 81 75 74
4.352942 13.094373 -1.347304 59 63 69
-3.265786 6.401815 -0.295511 109 107 115
-2.375779 -1.758129 -0.662283 74 69 64
-2.483290 -1.720586 -0.644205 82 80 75
-2.397280 -1.487245 -0.404163 6 3 4
5.174274 5.312871 -5.239524 156 130 99
-2.866708 4.051914 -5.001158 134 113 77
-2.218281 4.528066 -5.149303 146 126 98
-2.566782 5.509303 -5.200447 114 97 75
-3.026163 5.514423 -5.065336 104 75 33
-1.650635 6.847909 -4.761037 145 125 75
1.662151 9.330924 -5.309627 141 121 89
2.088665 9.515308 -5.317606 196 175 128
4.321143 10.534583 -5.428174 119 99 68
2.532217 10.105806 -5.315543 120 102 64
2.644771 10.315545 -5.417952 166 149 114
1.059596 9.655005 -5.222132 123 117 112
2.591887 10.696675 -5.420821 126 110 82
2.926286 10.667252 -5.205510 123 107 71
-1.566267 6.582399 -2.332407 139 119 89
-3.453764 3.731784 -1.345730 40 32 27
-3.478147 4.179171 -1.381919 239 221 167
-3.463964 4.201884 -1.345582 204 173 115
7.146002 10.821362 -2.168631 236 190 137
0.105457 11.940022 -3.865672 140 122 95
0.381514 8.469689 -2.320984 118 109 96
-3.515412 4.088416 -1.143158 219 204 177
3.745471 11.744380 -2.695822 170 150 115
2.092704 10.301283 -2.314397 173 156 127
3.080231 11.473248 -2.415992 162 147 114
8.133822 17.005024 -3.075965 170 149 118
-2.265567 6.585358 -1.088609 54 61 84
1.724016 10.727145 -1.573075 144 184 229
-3.216445 6.611115 -0.986565 94 90 93
-3.163938 6.628936 -0.519390 62 60 63
-3.282341 6.362743 -0.269397 126 120 127
-2.361366 -1.805736 -0.643061 44 33 26
-2.381301 -1.750152 -0.659754 24 18 10
-2.484493 -1.733337 -0.636117 39 36 31
-2.249171 3.961071 -5.137536 199 173 127
-2.172784 4.512434 -5.150656 149 124 90
-2.778756 5.316057 -5.100191 55 52 28
-3.093504 5.420902 -5.126581 148 121 82
1.867514 8.633451 -5.202901 175 152 112
2.374897 9.417691 -5.573002 201 182 133
2.867626 10.032403 -5.493187 178 159 118
-3.732580 3.798185 -1.303102 113 89 49
6.749538 10.437601 -2.079740 174 128 72
-3.161513 6.624047 -0.927982 80 72 68
5.636131 14.643824 -1.640291 157 165 180
5.465188 -1.163882 -2.976577 224 184 121
1.835109 10.318281 -2.561411 65 44 20
4.675408 11.669028 -5.431058 31 20 8
4.680770 12.241133 -5.350555 42 37 29
3.314816 3.021632 -0.573615 151 128 110
2.919875 2.358948 -1.020893 90 110 122
-1.592930 -2.163461 0.383146 209 229 233
2.838374 2.581806 -1.494205 164 147 131
5.417358 0.177536 -4.502884 142 99 56
3.370891 2.971225 -0.545840 152 127 98
4.893186 10.922344 -4.097040 209 139 63
2.943172 2.265336 -1.287717 38 43 41
2.818105 2.378912 -1.155542 135 161 170
4.712124 0.958579 -4.988784 151 132 108
2.730366 2.559394 -1.274006 78 86 96
1.844089 10.474170 -4.760303 205 182 135
6.074073 12.874348 -2.809983 219 173 119
0.431872 9.257939 -2.049052 69 53 40
3.155816 11.810529 -3.131026 239 224 195
3.123094 11.690421 -3.082590 239 224 195
2.165769 10.179732 -1.711580 64 53 41
7.217171 2.056687 -4.957224 65 41 24
8.229624 2.265635 -4.311081 229 194 154
8.091832 1.966087 -2.706918 189 147 115
7.781964 11.750535 -2.506545 221 184 129
-0.789100 6.874914 -5.034399 90 77 64
12.265512 7.289643 -1.435389 252 242 218
1.877745 10.628228 -3.284648 194 177 138
8.902063 12.499605 -2.928319 240 202 149
7.550133 10.267122 -1.673435 234 224 215
1.208014 9.156957 -1.581287 203 180 129
1.208014 9.156957 -1.581287 203 180 129
8.011025 1.892979 -3.662809 190 151 119
-2.607988 4.138187 -5.063733 183 155 116
-0.957315 -1.692018 0.427546 118 101 80
-0.469684 7.004046 -5.059754 176 160 122
0.915756 9.253022 -2.646425 107 97 93
1.321865 10.165482 -2.434556 158 134 103
-1.527863 6.585062 -5.045657 27 20 16
-1.424583 6.524620 -4.683051 233 211 173
-0.476865 7.111901 -4.884490 87 68 49
8.930482 3.211119 -1.624267 12 5 0
9.572549 5.429780 -1.528982 153 102 64
11.818114 6.163749 -1.681549 40 28 23
-3.725428 3.861820 -1.169763 229 210 170
-3.725517 3.861841 -1.169505 229 210 170
4.809964 12.169369 -3.099909 60 43 27
-0.966703 -1.671485 0.535232 93 80 67
-1.648887 6.853609 -4.683119 215 191 150
0.127789 7.889179 -2.236109 255 244 224
1.650150 10.718403 -2.712012 106 84 53
1.650150 10.718403 -2.712012 106 84 53
0.539567 9.181249 -2.273918 93 78 73
7.200228 11.246900 -1.821001 92 75 56
3.278183 12.347829 -2.636299 96 79 55
1.041740 9.041125 -1.368030 67 51 38
1.337013 9.220785 -1.339161 70 54 43
8.151937 2.135976 -5.212317 130 105 84
9.185142 5.254264 -5.148898 82 48 23
9.608750 6.781851 -5.371479 162 130 107
8.733417 2.975530 -1.636088 218 193 165
4.757982 10.878834 -5.324515 35 28 27
4.615836 12.899335 -5.382400 76 64 50
12.556649 7.378986 -1.853900 246 224 192
0.203311 9.244602 -2.611202 22 14 10
5.025078 13.471600 -3.667655 24 13 2
8.256311 11.578859 -2.323555 35 12 1
1.742771 10.521352 -2.602574 156 133 103
8.056410 11.553825 -1.947836 180 38 19
8.056410 11.553825 -1.947836 180 38 19
6.687438 11.008491 -1.646387 207 194 190
8.436457 12.480463 -1.847684 15 9 5
1.211063 9.830898 -1.466657 136 185 230
-0.686453 9.091846 -1.211773 59 67 90
7.774187 2.012406 -4.752595 100 77 64
-0.836051 -1.892733 0.095522 209 193 171
7.999525 2.882772 -5.152871 127 96 72
-2.890942 3.395567 -4.676883 58 36 20
8.325340 3.542671 -4.661805 162 102 53
-0.736493 -1.943176 0.760409 164 149 132
9.181254 5.950062 -4.853106 242 190 134
-0.516270 6.816417 -5.261644 53 32 6
-0.732205 7.022234 -5.245696 150 130 103
-1.261869 6.317616 -4.716635 191 167 135
-0.244820 7.427248 -5.315868 89 68 36
-0.244820 7.427248 -5.315868 89 68 36
-0.682663 7.010580 -4.889661 47 28 3
-0.405033 7.300450 -4.847229 239 217 181
-0.299198 7.402637 -4.905457 96 73 40
-1.561846 6.839684 -4.580844 193 169 129
9.611423 3.753055 -1.995958 178 148 125
9.611423 3.753055 -1.995958 178 148 125
-0.205175 7.536628 -4.869130 237 215 173
8.349994 3.995570 -1.314407 249 205 152
-0.175627 7.984406 -2.281345 240 223 200
0.059844 8.335991 -2.345642 244 229 206
2.133426 10.269359 -2.479109 210 193 164
3.593689 11.725024 -2.523602 255 241 217
1.395827 9.397192 -1.517696 234 218 183
4.788568 13.203442 -2.267443 114 101 88
4.755215 12.847294 -2.134791 46 32 22
-2.374154 -1.507198 -0.429082 44 39 33
8.019710 2.031426 -3.960082 190 151 119
-0.736850 6.653906 -5.273952 192 165 129
-0.752248 6.817828 -5.279084 178 152 114
-1.656592 6.781215 -4.804390 176 150 122
0.188292 7.807428 -5.317597 175 152 124
-0.640044 -1.096701 0.574663 38 26 23
5.021897 10.940205 -5.391236 41 21 1
1.712597 10.468770 -4.990534 189 166 136
11.655045 7.800291 -2.188185 130 91 35
3.292389 3.248239 -0.720167 121 108 105
12.182887 7.229481 -1.699519 110 88 53
-1.404626 6.637631 -2.445424 181 157 120
13.933064 9.006640 -1.944938 201 180 144
4.527183 11.299657 -3.184927 92 68 45
10.649019 7.810349 -0.605860 74 64 60
3.477092 11.742379 -2.584561 254 242 218
8.133312 12.296606 -2.072977 64 52 52
6.557317 11.065857 -1.687551 30 24 20
1.191817 9.816442 -1.313348 206 198 232
-2.641202 3.463993 -5.006191 134 116 97
-1.658246 6.080257 -4.996678 241 224 195
-0.683994 6.947276 -5.088381 43 26 4
-0.606925 6.944312 -5.013473 214 199 173
-0.453189 7.049486 -5.050657 221 204 169
-0.503827 -1.301621 0.587478 134 121 99
0.153059 8.090410 -5.297920 135 117 93
-0.505052 7.174717 -4.735136 200 180 142
4.133957 11.188415 -5.441937 164 153 132
-0.305002 7.744272 -2.192622 147 128 109
0.274289 8.348382 -2.313205 128 115 94
4.928882 13.423624 -3.696813 95 86 76
8.073366 11.319736 -2.119287 155 99 20
6.521193 10.508836 -1.804024 54 47 43
2.972579 10.838303 -2.366744 231 218 194
8.297547 12.178350 -2.100069 158 75 62
6.591134 10.827048 -1.683382 43 34 32
5.823960 13.719426 -2.683148 137 116 85
-0.805536 9.215440 -1.239619 58 66 97
-2.394874 -1.509741 -0.416522 10 2 1
-2.394874 -1.509741 -0.416522 10 2 1
8.041835 3.029133 -4.906886 115 68 30
-2.044611 4.358148 -5.198555 183 159 137
-1.937980 4.438146 -5.087762 82 55 26
-1.157559 -1.772541 0.358641 255 253 235
-1.094034 -1.794809 0.424024 250 238 218
5.011286 5.240895 -5.209005 190 170 133
9.232545 6.074577 -4.990526 149 97 43
-0.521473 6.176234 -5.122705 195 170 135
-1.788570 6.337781 -5.127898 96 78 61
-1.722353 6.313374 -4.812776 99 78 50
-1.406528 6.897101 -5.115210 45 23 0
-0.773835 7.037731 -5.040274 192 175 153
0.076719 7.731498 -5.308924 165 145 121
-1.778713 6.998246 -4.824550 136 113 89
-1.307921 -1.309151 0.663395 93 73 49
0.199503 8.225203 -5.186460 203 179 140
10.007338 8.097793 -1.613055 177 142 90
10.883013 7.851221 -1.061112 54 48 37
4.907065 13.423199 -3.768081 65 51 41
7.526546 11.404548 -2.302518 173 126 72
7.321692 11.092250 -2.206002 173 126 72
7.453400 11.448543 -2.306339 216 174 132
7.193567 11.171776 -2.201594 115 74 43
3.495072 11.630264 -2.519698 232 219 193
3.522002 11.706325 -2.542950 232 219 193
6.440769 10.621589 -1.678475 52 45 41
1.178796 9.142256 -1.441252 112 92 57
6.960877 2.476976 -5.055313 215 162 106
7.943771 3.081736 -4.833385 121 81 45
5.128700 5.323852 -5.219114 183 164 135
-0.996485 -1.682917 0.556362 253 244 223
-1.681402 6.370964 -4.792189 101 79 46
-0.783183 7.037684 -5.140119 98 85 72
-0.587689 7.053551 -5.027585 71 53 30
-0.468310 7.075882 -5.014466 142 124 97
0.134144 7.782365 -4.857362 182 158 118
4.328623 11.848765 -5.545166 65 53 40
10.486731 5.380838 -1.615910 177 149 121
3.941101 11.796704 -5.480417 80 69 56
12.089876 6.925769 -1.650721 125 103 66
7.675554 3.400258 -5.169418 121 90 65
-0.130542 5.599452 -5.132420 127 103 70
-0.756356 -1.980884 0.752267 215 199 178
-0.181250 5.658800 -5.172474 172 149 118
-1.718613 6.450831 -5.180547 140 121 99
0.091782 7.428143 -5.242267 212 190 154
0.225154 8.389076 -2.361469 131 115 90
6.912992 10.915932 -2.153341 96 63 49
4.552789 11.547074 -3.565915 56 44 34
-0.721558 -1.001639 0.647644 77 69 64
5.078644 2.010612 -5.645352 180 165 142
3.046066 2.468956 -1.907834 174 158 144
5.594587 10.197328 -4.752733 228 168 96
5.157634 9.944077 -5.213912 249 214 115
5.813058 -0.256290 -4.893870 123 95 67
9.151955 5.767915 -4.479469 231 196 153
5.384720 10.076581 -5.201446 216 152 76
1.208153 0.650537 -4.942255 209 193 173
5.495181 10.296371 -4.640951 193 129 64
-1.255234 -1.825306 0.291291 202 185 155
6.366269 1.359812 -4.603328 175 149 121
11.308469 7.604564 -1.181481 39 29 18
-0.341684 6.572454 -5.184606 53 37 18
-1.043125 6.721813 -4.728607 207 185 150
3.287578 3.125121 -0.915691 94 87 85
11.788827 8.294273 -1.892819 249 232 192
-1.161179 -1.747582 0.433599 250 244 233
-0.844934 6.382824 -5.130236 182 154 122
2.842756 2.676673 -1.624609 160 146 129
1.612105 10.402318 -5.089469 54 40 24
9.029156 3.374054 -1.145253 42 31 26
4.912629 0.483999 -4.900426 113 85 55
-2.210179 4.164679 -5.113450 186 158 128
-2.092342 4.683608 -5.033539 172 145 117
-0.955958 -1.688678 0.424611 109 94 76
4.663801 11.779358 -4.930830 3 2 0
-1.274544 6.589231 -2.376292 177 156 128
-1.426942 6.616343 -2.282023 243 226 205
3.509168 2.976697 -0.718293 255 251 236
-0.247676 8.247960 -2.294545 83 67 49
-1.977055 4.571745 -5.064699 13 8 6
-1.124137 5.576608 -4.824540 181 153 121
-1.572634 6.195694 -5.204408 34 24 7
-1.571518 6.224070 -5.227695 34 24 7
-0.838081 5.915805 -4.898489 192 165 129
-1.773290 6.346478 -5.088606 59 43 34
-1.493264 6.748643 -2.835605 205 183 148
-1.441800 6.694273 -2.549710 158 137 107
4.801699 0.091248 -4.599061 32 23 13
5.014480 0.395775 -4.570533 164 112 61
-1.875033 4.555107 -5.111655 177 148 119
-1.775738 5.074825 -5.153670 196 168 134
-1.014231 5.731200 -5.208103 192 167 134
-1.143708 5.618144 -5.069087 69 49 25
-2.032208 5.797437 -4.967851 73 54 42
-1.943146 6.014695 -5.032837 207 183 160
-0.781335 6.021660 -5.157773 32 20 9
-0.781335 6.021660 -5.157773 32 20 9
-0.306250 6.017742 -5.187586 199 171 134
-1.673124 6.378798 -4.974951 219 198 174
-0.785413 6.905261 -4.828893 230 211 173
2.788833 2.618481 -1.661859 161 148 130
3.285835 11.628634 -5.535592 102 81 55
3.781921 12.072726 -5.552733 23 17 10
-1.341560 6.666657 -2.569886 211 188 155
3.655740 3.015202 -0.836559 45 24 13
3.257258 3.228365 -0.875020 30 24 20
-1.272119 6.555802 -2.251870 191 171 147
-1.348930 6.968504 -2.234811 77 56 39
8.138602 11.852250 -2.349899 36 22 19
-1.252902 7.191109 -1.091879 46 42 50
7.976840 11.667361 -2.071348 242 207 116
-1.594058 -2.166010 0.384745 201 220 227
-1.591272 -2.139816 0.401535 67 85 95
-1.590798 -2.138335 0.399688 67 85 95
-0.643064 -1.968028 0.300144 8 3 0
-0.668169 -2.001088 0.343243 8 3 0
6.055025 -0.299045 -3.185505 204 162 120
-2.146577 4.303762 -5.107612 43 26 8
-2.146577 4.303762 -5.107612 43 26 8
-2.002014 4.460637 -5.109437 166 146 124
-2.079363 4.602758 -5.141438 56 39 26
0.115057 5.555432 -5.159593 210 183 148
-0.979787 6.067111 -5.195820 179 155 127
-0.890418 6.049563 -5.138502 32 21 9
0.227589 5.926929 -5.237051 179 154 118
0.227589 5.926929 -5.237051 179 154 118
-0.821204 6.084617 -5.094115 191 165 136
-0.449228 6.262884 -5.198533 191 163 131
-1.060090 6.575941 -4.868176 49 29 13
-0.980618 6.710825 -4.818326 226 208 174
-1.481608 6.683517 -4.554142 222 198 161
4.433949 10.656492 -5.429925 76 62 43
7.881533 2.969779 -1.642008 218 165 114
-1.404279 6.708514 -2.974005 180 160 130
4.160776 11.786405 -5.536579 131 115 90
4.515092 11.281942 -4.985933 25 13 8
-1.330250 6.744205 -2.217609 238 225 202
-1.134950 7.008117 -2.252080 238 221 200
2.062029 10.328932 -2.772688 222 205 171
3.582961 11.259680 -3.077095 124 110 92
4.646517 13.080296 -3.675040 25 14 2
4.598958 11.245209 -2.749167 212 165 113
5.369890 14.373326 -3.794445 168 149 128
8.283137 11.619821 -2.336923 39 18 3
8.054761 12.084900 -2.375362 242 210 150
-1.571187 -2.160971 0.405235 82 82 82
5.358931 -0.160244 -4.013816 237 214 184
-2.255242 4.475789 -5.102037 26 14 0
-2.255318 4.476117 -5.101881 26 14 0
7.944090 1.694060 -4.918988 117 91 69
-0.656141 -2.054918 0.745633 39 29 10
-0.656141 -2.054918 0.745633 39 29 10
-1.709341 5.894562 -5.197288 178 152 128
-1.220642 -1.223377 0.277709 60 48 46
-1.963793 5.862097 -5.094308 161 141 122
-1.483887 6.092957 -5.162435 161 139 118
-1.465324 6.353875 -5.260429 53 37 21
-1.559321 6.355251 -5.185505 217 198 179
-1.595647 6.391721 -5.113563 69 48 30
-1.463882 6.283020 -5.011177 201 180 161
8.069516 3.629907 -4.593173 230 193 157
-0.017613 6.242263 -5.013561 97 82 61
-0.124756 6.394651 -5.034391 73 57 39
-1.234478 -1.360911 0.704910 64 43 25
2.833314 2.832848 -1.405166 40 35 31
3.547557 11.271939 -5.546922 205 188 164
3.517042 11.383751 -5.508927 47 36 20
3.533284 11.397724 -5.384202 152 136 116
4.388117 11.739596 -5.533433 129 117 105
4.026303 11.804935 -5.460329 32 22 13
4.653212 11.865801 -5.398737 69 60 48
3.914435 11.985112 -5.407524 118 103 86
-1.487397 6.648353 -2.310513 254 239 218
-1.258397 6.875304 -2.204891 126 108 89
12.261620 7.511008 -2.064996 197 155 116
11.957742 10.050881 -2.822939 245 212 165
4.897823 13.336025 -3.825600 113 98 88
5.200866 13.563540 -3.683128 108 95 83
8.232044 11.552522 -2.423897 226 182 137
3.707645 11.828382 -2.519181 82 67 46
7.828714 11.739859 -2.111566 49 32 20
8.059500 12.084174 -2.221020 49 32 20
0.890678 0.985560 -4.968305 223 207 182
4.999440 0.300467 -4.670433 67 26 0
5.286568 0.153044 -4.600384 41 15 0
-2.353193 3.466923 -5.079479 188 158 128
6.505213 0.254026 -3.850901 205 165 122
-2.057378 4.608995 -5.071883 168 150 132
-1.877112 4.588389 -5.083368 170 145 123
-2.118692 5.686303 -4.946628 208 190 175
7.924576 3.065292 -4.684355 195 141 89
-1.830095 6.209805 -5.221258 51 28 2
-1.616573 6.261226 -5.180734 59 39 20
-1.751818 6.382471 -5.187225 50 27 6
-0.250471 6.424296 -5.137959 56 40 24
-0.301811 6.456495 -5.145290 59 42 26
0.222195 6.114478 -4.971085 214 202 183
-0.416240 6.529635 -5.132171 46 26 10
-0.393168 6.673275 -5.237160 46 26 10
-0.264073 6.495652 -5.113203 112 97 78
-1.481955 6.735877 -5.052197 21 8 1
-1.694229 6.306624 -4.643467 67 44 21
-1.148946 6.407784 -4.756318 222 204 177
-1.511679 6.489304 -4.741954 74 50 25
-1.463357 6.508515 -4.732789 222 202 173
-1.261573 6.490943 -4.640552 98 74 47
-0.881959 6.802821 -4.874334 45 24 7
-0.551151 -1.248207 0.581599 149 135 119
-1.406376 6.662443 -4.519302 180 157 123
0.969247 8.632139 -5.346478 53 39 19
8.150183 2.205783 -2.153615 201 168 137
2.728994 2.555362 -1.195835 113 143 159
3.224003 11.236611 -5.496542 184 166 145
4.210482 11.446192 -5.482600 61 44 29
4.134213 12.035020 -5.437305 60 55 44
3.421083 11.378108 -5.091937 231 216 187
3.199517 2.698627 -0.871578 133 120 100
4.505970 12.058061 -5.363725 8 5 0
-1.539832 6.639931 -2.391559 83 61 40
-1.423751 6.650575 -2.177037 120 104 83
12.495079 6.816715 -1.599764 252 232 180
12.940537 7.931189 -1.984823 227 205 172
4.610678 11.521023 -2.910293 41 20 1
5.679449 14.697554 -3.970069 52 38 24
3.728939 11.806352 -2.638028 69 51 22
8.277794 11.470249 -2.216567 201 177 153
7.298345 11.243878 -2.160097 88 55 26
6.918762 10.872369 -2.054275 112 85 67
7.718144 11.907000 -2.247844 127 97 69
6.824052 10.846999 -1.932547 31 17 7
6.339816 11.302279 -1.954657 60 54 53
10.457308 7.944743 -0.700346 19 11 4
8.037614 12.304473 -2.147601 98 88 84
-0.627802 -2.046747 -0.204793 211 190 172
-1.581661 -2.135236 0.413222 190 214 223
5.011494 0.254097 -4.658219 122 82 41
6.407025 0.132959 -4.887382 178 146 114
5.358349 -0.175821 -3.945663 130 95 62
5.602238 -0.112949 -4.086151 241 213 181
5.824018 -0.216932 -3.857540 151 100 56
-2.305289 3.916342 -5.073778 167 145 123
6.012021 -0.115371 -3.462695 154 107 36
-2.143117 4.588489 -5.112679 167 148 133
-2.143117 4.588489 -5.112679 167 148 133
-1.925545 4.531765 -5.110848 160 140 121
7.878527 1.568994 -4.722959 158 125 98
-0.660641 -2.072320 0.664723 78 54 25
-0.684445 -2.043550 0.665522 80 61 41
-1.361244 5.475281 -5.255130 183 163 135
-0.731688 -1.973087 0.751841 63 42 11
-0.742665 -1.967605 0.754808 255 249 229
-1.070099 5.662283 -5.162079 183 160 133
